-42.553757 -45.229195 52.337753 
-42.590782 -45.252735 52.376827 
-42.467457 -45.411758 52.320923 
-42.341011 -45.544285 52.436352 
-42.580566 -45.335396 52.286667 
-42.624073 -45.310825 52.353722 
-42.486214 -45.516922 52.398113 
-42.587860 -45.448212 52.397278 
-43.997921 -47.833790 51.413246 
-43.915577 -47.858223 51.464462 
-43.958626 -47.880386 51.418877 
-43.997002 -47.842197 51.465645 
-44.008682 -47.874352 51.429176 
-45.148502 -50.410213 50.201584 
-45.027809 -50.389008 50.315868 
-44.982460 -50.482639 50.235500 
-45.269672 -50.380836 50.207104 
-45.202831 -50.346226 50.247726 
-45.289551 -50.355785 50.268997 
-45.108006 -50.509880 50.188290 
-44.990803 -50.590683 50.237839 
-45.242599 -50.474220 50.194981 
-45.328999 -50.435421 50.255806 
-45.150162 -50.621738 50.251549 
-45.302238 -50.547943 50.258541 
-46.608532 -52.954288 49.093048 
-46.486534 -52.932724 49.209660 
-46.481216 -53.066212 49.120609 
-46.704784 -52.907185 49.108700 
-46.630783 -52.859882 49.158504 
-46.705761 -52.874115 49.187389 
-46.593430 -53.122505 49.055599 
-46.463024 -53.314571 49.113297 
-46.710064 -53.055370 49.065556 
-46.772369 -53.001171 49.153507 
-46.683582 -53.307800 49.052433 
-46.789486 -53.186249 49.106651 
-36.563927 -34.877213 56.809071 
-36.368771 -35.335281 56.829376 
-36.228809 -35.376293 56.770573 
-36.577866 -35.194759 56.806732 
-36.807232 -35.228470 56.711826 
-36.655994 -35.447777 56.719566 
-36.217850 -35.559376 56.751537 
-36.557743 -35.604992 56.636501 
-36.238297 -35.622261 56.682007 
-36.375977 -35.650394 56.647137 
-37.555729 -37.547298 55.908047 
-37.660339 -37.580292 55.970665 
-37.865509 -37.471909 55.888817 
-37.935680 -37.606392 55.895088 
-37.524384 -37.648830 55.992210 
-37.507713 -37.677322 55.878437 
-38.307270 -37.649780 55.635532 
-38.092781 -37.751686 55.759811 
-37.591789 -37.825279 55.737480 
-37.754971 -37.899487 55.769188 
-38.300785 -37.832405 55.546234 
-38.122223 -37.928158 55.626156 
-37.964977 -37.989067 55.596958 
-39.525902 -40.091026 54.641018 
-39.627548 -40.054577 54.630493 
-39.550743 -40.264442 54.736012 
-39.471764 -40.297184 54.656822 
-39.663612 -40.273739 54.697598 
-39.750710 -40.366062 54.587681 
-39.474072 -40.532398 54.723125 
-39.716160 -40.515167 54.551567 
-39.509148 -40.585152 54.638283 
-39.603905 -40.606415 54.622425 
-40.811558 -42.404629 53.836086 
-40.614254 -42.486938 53.797611 
-40.994873 -42.407383 53.758392 
-40.939056 -42.460552 53.908825 
-40.494194 -42.685341 53.908501 
-40.441788 -42.838314 53.782036 
-41.070713 -42.518795 53.777725 
-41.175648 -42.712082 53.635300 
-40.533886 -42.958088 53.623924 
-40.632961 -43.162167 53.680119 
-41.182404 -42.972637 53.560825 
-40.853443 -43.191017 53.577816 
-41.061378 -43.135361 53.541714 
-42.250122 -45.435394 52.660278 
-42.219749 -45.514324 52.537739 
-42.474262 -45.304958 52.488838 
-42.555370 -45.359814 52.523701 
-42.184700 -45.684784 52.587177 
-42.584713 -45.484619 52.532806 
-42.334618 -45.732117 52.580769 
-42.517380 -45.623489 52.539600 
-43.820831 -47.964489 51.483131 
-43.699631 -47.956219 51.631252 
-43.595646 -48.112736 51.594601 
-43.905445 -47.853630 51.542076 
-43.968727 -47.874290 51.567417 
-43.773098 -48.090271 51.506454 
-43.662128 -48.214458 51.589104 
-43.930981 -47.992638 51.468845 
-44.001995 -47.947823 51.534454 
-43.825378 -48.175312 51.564713 
-43.952625 -48.096226 51.569122 
-44.854321 -50.482349 50.338741 
-44.822506 -50.474297 50.503464 
-44.735352 -50.568005 50.434994 
-45.025124 -50.384262 50.465767 
-45.186073 -50.350071 50.354946 
-45.298382 -50.414734 50.376366 
-44.837315 -50.592606 50.321571 
-44.707573 -50.710655 50.490585 
-45.337116 -50.541950 50.371403 
-44.917923 -50.735130 50.374203 
-45.110600 -50.766384 50.384953 
-45.263744 -50.673958 50.363155 
-46.344448 -52.962608 49.434433 
-46.286533 -53.134285 49.274826 
-46.585503 -52.874729 49.288250 
-46.725636 -52.967926 49.305687 
-46.224091 -53.437111 49.280396 
-46.830616 -53.214245 49.266289 
-46.596420 -53.512188 49.072548 
-46.439407 -53.607250 49.182056 
-46.724155 -53.531219 49.073475 
-46.809898 -53.410717 49.132496 
-46.648224 -53.677174 49.142998 
-36.315304 -35.516483 56.802326 
-36.467800 -35.438305 56.810833 
-36.294830 -35.627850 56.745613 
-36.438725 -35.585060 56.748508 
-37.797905 -37.593197 55.960152 
-37.564423 -37.711288 56.026672 
-37.504814 -37.727005 56.005810 
-37.758186 -37.744427 55.930431 
-37.580402 -37.765041 56.014999 
-37.575130 -37.789604 55.937023 
-37.946026 -37.896179 55.754654 
-39.579483 -40.448513 54.803669 
-39.501369 -40.466732 54.792927 
-39.657490 -40.463223 54.746017 
-39.590729 -40.583393 54.807514 
-39.497898 -40.600559 54.813576 
-39.658970 -40.562084 54.697250 
-39.580395 -40.645557 54.760925 
-39.521584 -40.640846 54.749279 
-40.812084 -42.468487 53.984562 
-40.656273 -42.543789 53.972527 
-40.884159 -42.524822 54.002621 
-40.554535 -42.814720 54.105137 
-40.435093 -42.940289 54.004135 
-40.972939 -42.692757 53.939003 
-41.086910 -42.951908 53.804344 
-40.472694 -43.074425 53.846722 
-40.568737 -43.259281 53.902599 
-41.073227 -43.127304 53.718548 
-40.725372 -43.284813 53.770760 
-40.895489 -43.257244 53.783180 
-42.061764 -45.579151 52.734936 
-42.038738 -45.602062 52.918755 
-41.942585 -45.712128 52.868832 
-42.219685 -45.497196 52.869434 
-42.397293 -45.423119 52.710239 
-42.493664 -45.533112 52.740170 
-42.033314 -45.710030 52.722080 
-41.916489 -45.875248 52.911091 
-42.513870 -45.686424 52.725426 
-42.093731 -45.884026 52.770630 
-42.262352 -45.928612 52.769958 
-42.421139 -45.826920 52.721962 
-43.451786 -48.101295 51.721268 
-43.431747 -48.085350 51.882019 
-43.298435 -48.213711 51.857002 
-43.656052 -47.979641 51.816261 
-43.841961 -47.910110 51.680141 
-43.936874 -47.978306 51.700031 
-43.390488 -48.207119 51.719933 
-43.478813 -48.288357 51.702797 
-43.959099 -48.115005 51.700016 
-43.654270 -48.352123 51.730919 
-43.868233 -48.256664 51.702663 
-44.712784 -50.580029 50.753227 
-44.646236 -50.639889 50.619854 
-44.930130 -50.469559 50.652115 
-45.150425 -50.422283 50.527744 
-45.263031 -50.539036 50.548889 
-44.589588 -50.819103 50.721153 
-45.282406 -50.684223 50.529507 
-44.741436 -50.870987 50.601868 
-44.959148 -50.877251 50.548496 
-45.164909 -50.813278 50.531929 
-46.119934 -53.099140 49.477009 
-46.115196 -53.073578 49.678493 
-45.982571 -53.201149 49.595901 
-46.348309 -52.989388 49.644897 
-46.555367 -52.959503 49.488945 
-46.738476 -53.135456 49.493683 
-46.053902 -53.285984 49.433559 
-45.932934 -53.396652 49.614017 
-46.854939 -53.357964 49.455257 
-46.046391 -53.506718 49.450382 
-46.236828 -53.708176 49.396915 
-46.785728 -53.615299 49.159061 
-46.858074 -53.540382 49.314335 
-46.521984 -53.801174 49.302486 
-46.740986 -53.753849 49.291595 
-37.525314 -37.761189 56.030247 
-39.531960 -40.572582 54.840473 
-39.536430 -40.642879 54.822086 
-40.768822 -42.629776 54.054501 
-40.522873 -43.039028 54.259964 
-40.438717 -43.054256 54.201328 
-40.737762 -42.914318 54.137024 
-40.933010 -42.978210 54.005081 
-40.787395 -43.138432 54.117348 
-40.454796 -43.176731 54.089836 
-40.554688 -43.307308 54.069683 
-40.954433 -43.150955 53.920486 
-40.777744 -43.279160 54.028980 
-40.691277 -43.328808 53.950260 
-41.991875 -45.722797 53.135807 
-41.884846 -45.829990 53.061768 
-42.131443 -45.596008 53.035294 
-42.312149 -45.583851 52.966576 
-42.404736 -45.752319 52.970341 
-41.852783 -46.001133 53.074070 
-42.428764 -45.864552 52.877823 
-41.946472 -46.044846 52.987411 
-42.119942 -46.055008 52.934063 
-42.303822 -45.992306 52.909168 
-43.324188 -48.191959 52.111507 
-43.248863 -48.230209 52.018200 
-43.539352 -48.087749 52.009834 
-43.769211 -48.022530 51.872494 
-43.866348 -48.145878 51.890179 
-43.316032 -48.316448 51.825916 
-43.223427 -48.375317 52.021122 
-43.872440 -48.294613 51.875584 
-43.394901 -48.443581 51.900455 
-43.566193 -48.497631 51.921955 
-43.746284 -48.423302 51.882893 
-44.655666 -50.708462 50.978149 
-44.564178 -50.747696 50.859718 
-44.831280 -50.585560 50.853352 
-45.057224 -50.573624 50.764721 
-45.191757 -50.694721 50.729713 
-44.513733 -50.913578 50.956055 
-45.181164 -50.809155 50.688385 
-44.620190 -50.965008 50.842396 
-44.796059 -50.969105 50.746418 
-44.985397 -50.930923 50.775997 
-46.048279 -53.197029 49.923283 
-45.930927 -53.268970 49.784424 
-46.245728 -53.081470 49.818001 
-46.507179 -53.120464 49.735855 
-46.747185 -53.373138 49.680241 
-45.890388 -53.493855 49.830799 
-46.863968 -53.551739 49.526459 
-46.005924 -53.631683 49.623562 
-46.187813 -53.826290 49.633194 
-46.819065 -53.743473 49.484024 
-46.396641 -53.879845 49.479786 
-46.634727 -53.882404 49.495884 
-35.138626 -35.933048 57.636177 
-35.023109 -35.889271 57.765774 
-34.976742 -36.025093 57.637180 
-35.264149 -35.908028 57.657417 
-35.201431 -35.844311 57.710819 
-35.293793 -35.872692 57.737331 
-35.084816 -36.082535 57.578304 
-34.988148 -36.155739 57.583096 
-35.221340 -36.060284 57.605915 
-35.333595 -36.015575 57.699852 
-35.086201 -36.342712 57.583252 
-35.296886 -36.217300 57.646812 
-40.486546 -43.162254 54.329586 
-40.436119 -43.140530 54.311523 
-40.608154 -43.135090 54.259426 
-40.636070 -43.255344 54.201355 
-40.426861 -43.186115 54.260487 
-40.506062 -43.267368 54.221333 
-40.629433 -43.324429 54.112835 
-41.901108 -45.879116 53.220814 
-42.001152 -45.828346 53.254997 
-42.149181 -45.714401 53.178349 
-42.286346 -45.735455 53.135830 
-42.211842 -45.795300 53.229698 
-41.942448 -46.000988 53.304638 
-41.848480 -46.034637 53.219414 
-42.247070 -45.898476 53.194244 
-42.314819 -45.969975 53.056187 
-41.880188 -46.128502 53.155479 
-41.995350 -46.145817 53.088161 
-42.144485 -46.118073 53.106289 
-43.283440 -48.316994 52.274258 
-43.193760 -48.337173 52.182083 
-43.438553 -48.210682 52.185261 
-43.655144 -48.201412 52.097607 
-43.776936 -48.324856 52.062386 
-43.164043 -48.483009 52.226536 
-43.763935 -48.432999 52.023705 
-43.263962 -48.532375 52.122372 
-43.424553 -48.556702 52.051540 
-43.588806 -48.537193 52.083099 
-44.619663 -50.843575 51.166325 
-44.522350 -50.859505 51.079433 
-44.835968 -50.730366 51.022190 
-45.039806 -50.734840 50.915802 
-44.901443 -50.865753 51.072140 
-44.490410 -50.988705 51.145836 
-45.063862 -50.845516 50.883186 
-44.875221 -50.974377 51.036903 
-44.546650 -51.018581 51.037155 
-44.710606 -51.036972 51.008381 
-46.010872 -53.333481 50.115990 
-45.898510 -53.372597 50.000935 
-46.265427 -53.248589 49.989815 
-46.536976 -53.327736 49.889851 
-46.391525 -53.482948 50.037823 
-45.871525 -53.555073 50.041851 
-46.645489 -53.515953 49.859768 
-46.783714 -53.673805 49.694294 
-45.992790 -53.707409 49.873398 
-46.202450 -53.845943 49.819599 
-46.760612 -53.841690 49.626366 
-46.613125 -53.879349 49.715816 
-46.729053 -53.815487 49.737167 
-46.409069 -53.910259 49.664715 
-34.844513 -36.028423 57.748505 
-34.802055 -35.993889 57.939590 
-34.702751 -36.166588 57.820477 
-35.023388 -35.869560 57.939056 
-35.191456 -35.844650 57.832310 
-35.319836 -35.966072 57.852512 
-34.842270 -36.234535 57.662331 
-34.635181 -36.459278 57.820194 
-35.386093 -36.244499 57.813412 
-34.837875 -36.550621 57.638702 
-35.004292 -36.660183 57.586433 
-34.879986 -36.781067 57.650795 
-35.161366 -36.637589 57.600063 
-35.298210 -36.475681 57.668327 
-35.072231 -36.848244 57.670464 
-36.653076 -38.876743 56.756302 
-36.565964 -38.811684 56.817451 
-36.528275 -39.012398 56.814045 
-36.739162 -38.856831 56.761810 
-36.672520 -38.754665 56.806057 
-36.761578 -38.785362 56.850792 
-36.719887 -39.027695 56.749619 
-36.798615 -38.931416 56.801498 
-40.450298 -43.212959 54.321426 
-40.521660 -43.225883 54.301929 
-42.105328 -45.879200 53.276657 
-41.937943 -46.136856 53.338223 
-41.872169 -46.129364 53.315327 
-42.069202 -46.063290 53.297680 
-42.186455 -46.065769 53.202724 
-42.071911 -46.156036 53.251675 
-41.864346 -46.165554 53.267719 
-41.963158 -46.191730 53.231224 
-43.280266 -48.423096 52.364323 
-43.184650 -48.442894 52.322914 
-43.447002 -48.349548 52.293217 
-43.629066 -48.368465 52.215073 
-43.500893 -48.476669 52.305664 
-43.170937 -48.540070 52.333176 
-43.653957 -48.469624 52.176865 
-43.501556 -48.554077 52.248539 
-43.206722 -48.573395 52.267998 
-43.357368 -48.589390 52.223705 
-44.588058 -50.946163 51.278687 
-44.514755 -50.953285 51.237331 
-44.721081 -50.897896 51.207699 
-44.760387 -50.990856 51.203510 
-44.506603 -51.032104 51.258884 
-44.731594 -51.053970 51.166523 
-44.636833 -51.082115 51.202965 
-44.662842 -51.060333 51.260197 
-44.553898 -51.061806 51.177338 
-45.980850 -53.438328 50.226894 
-45.894424 -53.464832 50.164917 
-46.136311 -53.407574 50.173397 
-46.183754 -53.533009 50.180008 
-45.881840 -53.581631 50.168884 
-46.579121 -53.719189 49.873615 
-46.289566 -53.668839 50.060028 
-45.926731 -53.663773 50.080353 
-46.100998 -53.737007 50.030640 
-46.376060 -53.831985 49.873272 
-34.685894 -36.108116 58.179859 
-34.589817 -36.241898 58.001801 
-34.928196 -35.959187 58.125183 
-35.167576 -35.926609 58.018703 
-35.322666 -36.130672 58.046066 
-34.495750 -36.503197 58.040993 
-35.416672 -36.388649 58.018459 
-34.720814 -36.729862 57.746967 
-34.575405 -36.784218 57.973263 
-35.263741 -36.729084 57.692200 
-35.391235 -36.618290 57.857937 
-34.844971 -36.937252 57.810352 
-35.052906 -36.989792 57.791817 
-35.236610 -36.909405 57.833385 
-36.564053 -38.702209 56.907551 
-36.434608 -38.710175 57.082436 
-36.411285 -38.840485 56.944847 
-36.679657 -38.682690 56.898560 
-36.601875 -38.656055 57.005455 
-36.714931 -38.726170 57.004879 
-36.258545 -39.091980 57.009720 
-36.818146 -38.933178 56.961269 
-36.637844 -39.189297 56.772446 
-36.477245 -39.268475 56.887451 
-36.750523 -39.209679 56.770496 
-36.818943 -39.107670 56.827488 
-36.672302 -39.335396 56.841843 
-38.021046 -41.477867 55.927910 
-37.938759 -41.419281 55.988049 
-37.888744 -41.633102 55.976456 
-38.109268 -41.452354 55.936604 
-38.047161 -41.351929 55.981396 
-38.138515 -41.380291 56.028950 
-38.082516 -41.631283 55.921471 
-38.169125 -41.528172 55.978188 
-41.903015 -46.192169 53.317337 
-41.980579 -46.179184 53.312523 
-43.240349 -48.518581 52.378239 
-43.356262 -48.475220 52.372379 
-43.241913 -48.582047 52.335491 
-43.358494 -48.556423 52.340446 
-44.541176 -51.011723 51.304745 
-44.632183 -51.006718 51.291897 
-44.572395 -51.062714 51.280529 
-45.944012 -53.541348 50.231777 
-46.046310 -53.501366 50.242279 
-45.957333 -53.641644 50.171188 
-46.072277 -53.612843 50.188412 
-34.655781 -36.259090 58.382874 
-34.513058 -36.371208 58.219254 
-34.837322 -36.082016 58.313080 
-35.096554 -36.093277 58.265007 
-35.301399 -36.364864 58.262749 
-34.450970 -36.677380 58.211655 
-35.411850 -36.634079 58.109127 
-34.496979 -36.958183 58.218304 
-35.377216 -36.834545 57.991222 
-35.253387 -36.989220 58.030972 
-35.332253 -36.873600 58.176334 
-34.702881 -37.055283 58.069847 
-35.015106 -37.064495 57.979836 
-36.310844 -38.756184 57.335346 
-36.193707 -38.871361 57.165813 
-36.560165 -38.701019 57.175724 
-36.717617 -38.840210 57.186672 
-36.054111 -39.052761 57.173546 
-36.008080 -38.979050 57.297516 
-35.963028 -39.151726 57.306217 
-36.820827 -39.037399 57.152321 
-36.072369 -39.216206 57.159046 
-36.261276 -39.383240 57.097427 
-36.795448 -39.281624 56.855194 
-36.840778 -39.212605 57.010540 
-36.535221 -39.457676 57.000816 
-36.737270 -39.410103 56.988457 
-37.948215 -41.310379 56.080997 
-37.842808 -41.342850 56.248741 
-37.791721 -41.473763 56.107780 
-38.062271 -41.280659 56.076313 
-37.997421 -41.263668 56.181454 
-38.107403 -41.327507 56.184673 
-37.616322 -41.760063 56.143173 
-38.199478 -41.534542 56.143494 
-37.987755 -41.809082 55.939541 
-37.811958 -41.915440 56.040493 
-38.104481 -41.823624 55.943848 
-38.183739 -41.713554 56.005108 
-38.010567 -41.974655 56.015640 
-39.459461 -43.874489 55.143063 
-39.405357 -43.816685 55.220078 
-39.384972 -43.839714 55.138279 
-39.490509 -43.854893 55.234146 
-39.402752 -43.942242 55.095581 
-39.335960 -43.914738 55.140026 
-39.336021 -44.086174 55.137486 
-39.479881 -44.003662 55.101139 
-39.548183 -44.017174 55.201775 
-39.430019 -44.098583 55.085945 
-39.515156 -44.189934 55.124863 
-34.689541 -36.408978 58.517288 
-34.516815 -36.567558 58.419285 
-34.892143 -36.239300 58.470177 
-35.110264 -36.273651 58.440304 
-35.013748 -36.346817 58.533951 
-34.446888 -36.841175 58.365051 
-35.134632 -36.508907 58.486019 
-35.311188 -36.677158 58.327499 
-34.487232 -37.049767 58.396198 
-35.108578 -37.057602 58.227966 
-35.228497 -36.893715 58.346436 
-34.599182 -37.148819 58.289989 
-34.831985 -37.164131 58.219879 
-36.091404 -38.872147 57.373573 
-36.148064 -38.875713 57.550785 
-35.971790 -39.051720 57.485035 
-36.320026 -38.782204 57.506874 
-36.506294 -38.805279 57.418362 
-36.688419 -39.033615 57.384632 
-35.937862 -39.266338 57.464035 
-36.814503 -39.214802 57.227360 
-36.033768 -39.356007 57.303570 
-36.194809 -39.533710 57.319061 
-36.778927 -39.404995 57.183308 
-36.398571 -39.554035 57.173435 
-36.610954 -39.551537 57.191689 
-37.778179 -41.420025 56.472645 
-37.599571 -41.565071 56.323292 
-37.981556 -41.322598 56.348282 
-38.130646 -41.451073 56.371048 
-37.423641 -41.789429 56.293545 
-37.390072 -41.779266 56.453823 
-37.329041 -41.962273 56.372566 
-38.217495 -41.646603 56.342537 
-37.424213 -41.937279 56.240360 
-37.580631 -42.045727 56.187820 
-38.149559 -41.904369 56.033089 
-38.210899 -41.832645 56.196651 
-37.834129 -42.161942 56.190331 
-38.085609 -42.063538 56.169922 
-39.333096 -43.857178 55.204193 
-39.307529 -43.916042 55.362782 
-39.266045 -44.012302 55.249237 
-39.437794 -43.848442 55.324955 
-39.527740 -43.944084 55.347485 
-39.224304 -44.309761 55.296326 
-39.605995 -44.118584 55.346928 
-39.406155 -44.316956 55.140457 
-39.529194 -44.400646 55.158718 
-39.461094 -44.526932 55.190540 
-39.609295 -44.310078 55.254822 
-39.564709 -44.555828 55.258430 
-41.024208 -46.708523 54.296001 
-41.000927 -46.681515 54.313503 
-40.966431 -46.738987 54.313919 
-41.017014 -46.710613 54.369381 
-41.017239 -46.780270 54.319328 
-42.366253 -49.400154 53.161034 
-42.312820 -49.401119 53.218719 
-42.339695 -49.450714 53.152309 
-42.375046 -49.376812 53.242905 
-42.377590 -49.441216 53.172531 
-43.724838 -51.915852 52.047001 
-43.648514 -51.934059 52.089901 
-43.682079 -51.960106 52.049202 
-43.728405 -51.923790 52.097679 
-43.732006 -51.958378 52.063309 
-44.884060 -54.869781 50.784691 
-44.865135 -54.798153 50.868465 
-44.746437 -54.869106 50.810997 
-44.999336 -54.916630 50.813061 
-44.871437 -54.955093 50.766392 
-34.642811 -36.617844 58.555477 
-34.867157 -36.502495 58.569836 
-34.738499 -36.792549 58.583397 
-34.538548 -36.870594 58.505997 
-34.972797 -36.753799 58.553734 
-35.167747 -36.769623 58.461979 
-35.017227 -36.983139 58.451427 
-34.539150 -37.094612 58.492741 
-34.893475 -37.149967 58.367290 
-34.558258 -37.178341 58.425018 
-34.699352 -37.203316 58.390915 
-36.019444 -39.063091 57.666214 
-36.147648 -38.995235 57.707394 
-36.332623 -38.884205 57.627441 
-36.507652 -38.943077 57.574841 
-36.414017 -38.988995 57.675365 
-36.048458 -39.223213 57.794197 
-35.941589 -39.280056 57.671398 
-36.486855 -39.167316 57.622494 
-36.698864 -39.347664 57.405502 
-36.010094 -39.462994 57.543304 
-36.184162 -39.595543 57.507099 
-36.700603 -39.517334 57.326488 
-36.551949 -39.586086 57.413216 
-36.646461 -39.512878 57.440704 
-36.384727 -39.616581 57.355305 
-37.763714 -41.523552 56.670845 
-37.569832 -41.621925 56.573483 
-37.968933 -41.452629 56.593163 
-38.130463 -41.653687 56.577599 
-37.409550 -41.871929 56.638966 
-37.309216 -41.978527 56.520012 
-38.208714 -41.839077 56.425545 
-37.404884 -42.098473 56.310780 
-37.353699 -42.176117 56.485386 
-38.149807 -42.060627 56.377308 
-37.563129 -42.270500 56.364285 
-37.785961 -42.347736 56.388950 
-37.986431 -42.252148 56.359379 
-39.195805 -44.071297 55.623722 
-39.138157 -44.151608 55.473797 
-39.402515 -43.961937 55.491665 
-39.537766 -44.110531 55.519657 
-38.997719 -44.446754 55.591713 
-39.638130 -44.318661 55.458366 
-39.337898 -44.516663 55.242439 
-39.197723 -44.599010 55.419060 
-39.646633 -44.534935 55.395454 
-39.417053 -44.676254 55.337608 
-39.569965 -44.688072 55.393986 
-40.914745 -46.663773 54.395679 
-40.808758 -46.628723 54.547226 
-40.777027 -46.664532 54.467232 
-40.941994 -46.656925 54.511173 
-40.810558 -46.788765 54.396664 
-40.683708 -46.748604 54.501682 
-40.636974 -46.925999 54.511486 
-41.017269 -46.761642 54.500057 
-40.769016 -46.987679 54.416832 
-40.645706 -47.146236 54.532700 
-40.928707 -46.915291 54.359070 
-41.025169 -46.891212 54.424030 
-40.831284 -47.139896 54.448277 
-40.963802 -47.078869 54.436779 
-42.257359 -49.509991 53.206909 
-42.177879 -49.457352 53.352364 
-42.140041 -49.593014 53.314686 
-42.298752 -49.323463 53.387917 
-42.383884 -49.341412 53.391602 
-42.222542 -49.632565 53.235992 
-42.118103 -49.732956 53.370102 
-42.327305 -49.557232 53.196495 
-42.391396 -49.484371 53.287212 
-42.254910 -49.725868 53.293579 
-42.348179 -49.650074 53.296528 
-43.550789 -52.030716 52.098370 
-43.449524 -52.020290 52.234863 
-43.358887 -52.142853 52.176189 
-43.645515 -51.928944 52.165344 
-43.707115 -51.953064 52.195423 
-43.482025 -52.157536 52.120762 
-43.346375 -52.265640 52.194904 
-43.644093 -52.077126 52.098282 
-43.731094 -52.031979 52.165688 
-43.506485 -52.286060 52.205441 
-43.671741 -52.188950 52.200233 
-44.641155 -54.738998 50.936859 
-44.518982 -54.662762 51.100857 
-44.438557 -54.719704 50.992355 
-44.810585 -54.715210 51.060577 
-44.492874 -54.886467 50.887489 
-44.312519 -54.809322 51.006462 
-44.265755 -55.022736 50.986217 
-45.108006 -54.921146 50.873135 
-45.028343 -54.832268 50.931934 
-45.148903 -54.942345 50.967213 
-44.453762 -55.117668 50.868443 
-44.304127 -55.287521 50.974518 
-44.709507 -55.070045 50.799541 
-44.953987 -55.076668 50.794880 
-45.107201 -55.030087 50.864758 
-44.579613 -55.298546 50.873634 
-44.850449 -55.256199 50.850868 
-34.655743 -37.027401 58.546150 
-34.832520 -36.955383 58.555351 
-34.624088 -37.167023 58.487942 
-34.781563 -37.118813 58.487988 
-36.270992 -39.083351 57.739140 
-35.995033 -39.412418 57.896969 
-35.931782 -39.413300 57.855190 
-36.192913 -39.373547 57.799572 
-36.470570 -39.469822 57.585819 
-36.225945 -39.534710 57.731098 
-35.942482 -39.470058 57.760780 
-36.065174 -39.565960 57.738266 
-36.321243 -39.599865 57.565254 
-37.882912 -41.570492 56.789261 
-37.658527 -41.795055 56.789509 
-38.015453 -41.576122 56.755585 
-37.966576 -41.625114 56.842781 
-37.454029 -42.042305 56.766701 
-37.340981 -42.110538 56.646744 
-38.013645 -41.791569 56.800259 
-38.112137 -41.998650 56.621696 
-37.376396 -42.290157 56.647709 
-38.052681 -42.229668 56.533722 
-37.486729 -42.376701 56.581261 
-37.664185 -42.420261 56.525818 
-37.866714 -42.392406 56.580471 
-39.085567 -44.191620 55.850540 
-38.956387 -44.277214 55.765175 
-39.329010 -44.153286 55.747314 
-39.535713 -44.349072 55.698566 
-38.818100 -44.456909 55.802284 
-38.771618 -44.423103 55.951885 
-38.746250 -44.538837 55.905807 
-39.644180 -44.513527 55.563137 
-38.840504 -44.574413 55.777252 
-39.027817 -44.685993 55.673355 
-39.610844 -44.682621 55.540619 
-39.262035 -44.754471 55.516445 
-39.454544 -44.780914 55.545017 
-40.691353 -46.678177 54.569420 
-40.676197 -46.727089 54.714748 
-40.574833 -46.834644 54.640381 
-40.841106 -46.660133 54.649918 
-40.939323 -46.757736 54.650208 
-40.440887 -47.105663 54.710102 
-41.009811 -46.926353 54.604515 
-40.543983 -47.301563 54.678925 
-41.002129 -47.111374 54.555939 
-40.721878 -47.324699 54.595558 
-40.897209 -47.263081 54.553890 
-42.351967 -49.256256 53.490501 
-42.338951 -49.231335 53.560223 
-42.268444 -49.266396 53.558784 
-42.332836 -49.325005 53.557533 
-42.110550 -49.385986 53.558151 
-41.949745 -49.624252 53.578255 
-42.381832 -49.456245 53.454456 
-42.006939 -49.848713 53.544033 
-42.358875 -49.634632 53.436623 
-42.152302 -49.871964 53.457382 
-42.286316 -49.798386 53.426514 
-43.226120 -52.157875 52.295704 
-43.189560 -52.157440 52.471363 
-43.088367 -52.262299 52.409664 
-43.407631 -52.048298 52.424656 
-43.588467 -51.982063 52.298992 
-43.680557 -52.054382 52.327026 
-43.190117 -52.280560 52.289288 
-43.049431 -52.412697 52.472717 
-43.699631 -52.197689 52.329132 
-43.259151 -52.429005 52.350193 
-43.449341 -52.457436 52.361958 
-43.610245 -52.350498 52.332233 
-44.331406 -54.711864 51.101597 
-44.336784 -54.727810 51.290550 
-44.182945 -54.878651 51.152210 
-44.618320 -54.668938 51.240696 
-44.847179 -54.760921 51.272202 
-44.034000 -55.225891 51.185059 
-45.052200 -54.830997 51.098438 
-45.172726 -54.972679 51.103554 
-44.177963 -55.470181 51.114231 
-45.044724 -55.183182 50.878685 
-45.156998 -55.124550 51.010090 
-44.447556 -55.486176 51.025719 
-44.720188 -55.422592 50.955650 
-44.970959 -55.338326 51.016510 
-35.994408 -39.505985 57.923595 
-35.926743 -39.499538 57.937180 
-36.077244 -39.531445 57.848820 
-35.975605 -39.561638 57.900776 
-35.931705 -39.531982 57.887066 
-37.879780 -41.728657 56.862034 
-37.434826 -42.257893 56.770638 
-37.605488 -42.187397 56.881443 
-37.826935 -42.025192 56.890030 
-37.982800 -42.088318 56.812706 
-37.851715 -42.316555 56.888802 
-37.475956 -42.395458 56.729778 
-37.566738 -42.404121 56.851994 
-37.977749 -42.272644 56.720058 
-37.834236 -42.428368 56.784397 
-37.657066 -42.469730 56.744247 
-39.106529 -44.296898 56.009808 
-38.898918 -44.315628 55.997749 
-39.344715 -44.328846 55.903111 
-39.209938 -44.462257 56.042145 
-38.755409 -44.436535 56.105755 
-38.716854 -44.535831 56.037117 
-39.434429 -44.479870 55.876530 
-39.560619 -44.614449 55.724922 
-38.823177 -44.643410 55.918148 
-39.016304 -44.740356 55.850452 
-39.542835 -44.757439 55.666019 
-39.399986 -44.782631 55.748863 
-39.502632 -44.733799 55.767612 
-39.222839 -44.792503 55.700489 
-40.632114 -46.839298 54.875999 
-40.457603 -46.994858 54.862236 
-40.789223 -46.776684 54.792831 
-40.887489 -46.988911 54.818016 
-40.274536 -47.111584 54.834686 
-40.262859 -47.145924 54.894272 
-40.204399 -47.164627 54.864902 
-40.975468 -47.132599 54.717266 
-40.262619 -47.192429 54.830856 
-40.401890 -47.349110 54.862091 
-40.926723 -47.312500 54.712101 
-40.605011 -47.463097 54.786083 
-40.793560 -47.441372 54.730873 
-41.863495 -49.425465 53.775776 
-41.755684 -49.386162 53.892921 
-41.713120 -49.444378 53.904442 
-42.286266 -49.260502 53.609726 
-41.838211 -49.400757 53.881580 
-41.724190 -49.566036 53.842236 
-41.670036 -49.581379 53.995434 
-41.639286 -49.699009 53.952827 
-42.105347 -49.395889 53.729198 
-42.272793 -49.580212 53.647346 
-41.728298 -49.732605 53.820297 
-41.838177 -49.901981 53.767200 
-42.274494 -49.812691 53.612350 
-42.016800 -49.987423 53.666676 
-42.176659 -49.952244 53.616318 
-43.061069 -52.280422 52.737263 
-42.992504 -52.341709 52.603016 
-43.288364 -52.158535 52.630135 
-43.519646 -52.091515 52.496464 
-43.617710 -52.216759 52.523636 
-42.928551 -52.525623 52.708851 
-43.624901 -52.372711 52.509510 
-43.077484 -52.576839 52.588837 
-43.293514 -52.580711 52.534599 
-43.500542 -52.511440 52.516300 
-44.249279 -54.817596 51.550686 
-44.028954 -54.973446 51.405788 
-44.559872 -54.746277 51.432076 
-44.811123 -54.934711 51.467659 
-43.839787 -55.229111 51.393871 
-43.825443 -55.183624 51.576981 
-43.746094 -55.402382 51.499672 
-45.068436 -54.922764 51.258102 
-45.172539 -55.093304 51.194714 
-43.827751 -55.402931 51.340103 
-43.972450 -55.538982 51.277016 
-45.126808 -55.248489 51.145638 
-44.953106 -55.381634 51.253082 
-45.095154 -55.218117 51.288006 
-44.255360 -55.662148 51.259735 
-44.664642 -55.548859 51.178612 
-33.361103 -37.519249 59.411030 
-33.297215 -37.485256 59.514523 
-33.241318 -37.574955 59.412971 
-33.443249 -37.484917 59.468128 
-33.347130 -37.611225 59.379093 
-33.254940 -37.701488 59.391335 
-33.463829 -37.578899 59.418831 
-33.410130 -37.775806 59.425945 
-35.929176 -39.547070 57.947205 
-37.741596 -42.297714 56.947903 
-37.747532 -42.437424 56.961239 
-37.666988 -42.419178 56.948822 
-37.748749 -42.482708 56.900009 
-37.664738 -42.496655 56.906349 
-39.013554 -44.411613 56.152020 
-38.882607 -44.386589 56.145542 
-39.023064 -44.503029 56.161858 
-38.775810 -44.472569 56.187775 
-38.720921 -44.524227 56.144650 
-39.364811 -44.651234 55.893299 
-39.104496 -44.609474 56.061142 
-38.758141 -44.598598 56.083725 
-38.922867 -44.658318 56.040695 
-39.174072 -44.738586 55.895149 
-40.576725 -46.957226 54.955975 
-40.703472 -46.957470 54.942936 
-40.250942 -47.226768 54.890442 
-40.382042 -47.276009 54.983257 
-40.563797 -47.176392 55.039299 
-40.749039 -47.209839 55.017925 
-40.868153 -47.311363 54.905785 
-40.462742 -47.531139 55.069180 
-40.830471 -47.472473 54.869286 
-40.529762 -47.558113 54.965408 
-40.683811 -47.588612 54.955753 
-41.731400 -49.436062 53.949219 
-41.687000 -49.741898 54.129608 
-41.617077 -49.786510 54.088898 
-41.835400 -49.552338 53.979351 
-42.062141 -49.666599 53.902241 
-42.178020 -49.829906 53.825592 
-41.667812 -49.866085 53.971821 
-41.751152 -50.034100 53.993191 
-42.173714 -49.963509 53.772495 
-41.889915 -50.060131 53.857361 
-42.026501 -50.066090 53.852577 
-42.997944 -52.413002 52.965553 
-42.905769 -52.453106 52.847187 
-43.177158 -52.286861 52.839718 
-43.405254 -52.268753 52.748829 
-43.532310 -52.393661 52.716427 
-42.853779 -52.618622 52.943546 
-43.516876 -52.511791 52.676617 
-42.957867 -52.671352 52.830681 
-43.131401 -52.676056 52.735176 
-43.320724 -52.636871 52.764759 
-44.201717 -54.905239 51.728260 
-44.010258 -54.986057 51.665539 
-44.455227 -54.882442 51.644073 
-44.575275 -55.125385 51.687931 
-43.877949 -55.242485 51.785007 
-43.746002 -55.391445 51.666409 
-45.058262 -55.074467 51.349457 
-44.866844 -55.249550 51.471146 
-43.805016 -55.563965 51.428272 
-43.762920 -55.619534 51.624920 
-44.696426 -55.538994 51.443916 
-43.954784 -55.738815 51.470524 
-44.182102 -55.814674 51.477428 
-44.438210 -55.726284 51.431419 
-33.142731 -37.573574 59.502537 
-33.134083 -37.568295 59.669811 
-33.043999 -37.686172 59.566330 
-33.327026 -37.468525 59.672806 
-33.556179 -37.539467 59.517506 
-33.464619 -37.463486 59.586708 
-33.581875 -37.533493 59.648304 
-33.125332 -37.707001 59.453999 
-33.028683 -37.905338 59.567947 
-33.560471 -37.675072 59.481434 
-33.634392 -37.675316 59.612450 
-33.205456 -37.904587 59.456406 
-33.382526 -38.122459 59.525429 
-33.575584 -37.885864 59.559223 
-35.094028 -40.132507 58.603443 
-35.006664 -40.118858 58.659698 
-35.009392 -40.194031 58.595303 
-35.102989 -40.103359 58.662231 
-35.090931 -40.212418 58.589310 
-35.005066 -40.319649 58.604210 
-35.138142 -40.181229 58.646427 
-35.086414 -40.338345 58.650337 
-37.707558 -42.499119 56.959461 
-38.884449 -44.477943 56.201405 
-38.801632 -44.557076 56.167950 
-38.931396 -44.568085 56.160507 
-40.639400 -47.438873 55.159023 
-40.513237 -47.503464 55.169083 
-40.751385 -47.440643 55.089706 
-40.659977 -47.627674 55.202766 
-40.513031 -47.666527 55.210094 
-40.759434 -47.548920 55.041683 
-40.658188 -47.676201 55.137260 
-40.563049 -47.683365 55.139591 
-41.685547 -49.901253 54.232681 
-41.621334 -49.872665 54.201550 
-41.853954 -49.818142 54.116879 
-42.034859 -49.874065 54.007572 
-41.918598 -49.999882 54.127441 
-41.648819 -49.978760 54.164009 
-41.738724 -50.102005 54.132195 
-42.065102 -50.000492 53.957050 
-41.920490 -50.102631 54.073143 
-41.850655 -50.121185 54.021618 
-42.961735 -52.546463 53.151882 
-42.863960 -52.563183 53.065792 
-43.177708 -52.434311 53.009647 
-43.379688 -52.439102 52.904442 
-43.241348 -52.570992 53.059677 
-42.832767 -52.690144 53.130604 
-43.400951 -52.551479 52.872482 
-43.214504 -52.679558 53.024151 
-42.887356 -52.721931 53.023487 
-43.050232 -52.741093 52.995003 
-44.071121 -55.045223 51.808369 
-44.286392 -55.048061 51.805859 
-43.899677 -55.470692 51.917770 
-43.769592 -55.528076 51.804577 
-44.080605 -55.248966 51.889111 
-44.328278 -55.311771 51.853329 
-44.545010 -55.462101 51.699059 
-43.771618 -55.745155 51.810577 
-44.479355 -55.687168 51.613396 
-43.864048 -55.824120 51.694920 
-44.034714 -55.865868 51.616783 
-44.240135 -55.831070 51.656670 
-33.057362 -37.691055 59.898293 
-32.974373 -37.804890 59.729362 
-33.264828 -37.544258 59.846764 
-33.467152 -37.509361 59.760464 
-33.604965 -37.659607 59.796196 
-32.923496 -38.157024 59.769421 
-33.662327 -37.889980 59.751591 
-33.117466 -38.216827 59.577206 
-33.274479 -38.385235 59.573029 
-33.144958 -38.481533 59.642418 
-33.421734 -38.382534 59.618050 
-33.581036 -38.192265 59.698723 
-33.292412 -38.549793 59.678841 
-34.896072 -40.198971 58.662128 
-34.825653 -40.185776 58.822781 
-34.754089 -40.309231 58.724560 
-35.025177 -40.105598 58.746391 
-35.112900 -40.155602 58.759037 
-34.885414 -40.325283 58.634155 
-34.772312 -40.425488 58.691391 
-35.146511 -40.304703 58.757408 
-34.883450 -40.586536 58.715302 
-35.091743 -40.493626 58.758171 
-36.508385 -42.783241 57.755020 
-36.431782 -42.770267 57.807617 
-36.432827 -42.836830 57.738865 
-36.534492 -42.770737 57.821175 
-36.526081 -42.867493 57.729809 
-36.470093 -42.963654 57.728859 
-36.608383 -42.871872 57.801701 
-36.594833 -43.026802 57.773067 
-40.585426 -47.624062 55.253025 
-40.586834 -47.727356 55.291016 
-40.543030 -47.705002 55.280655 
-40.594925 -47.744064 55.251125 
-40.547352 -47.751396 55.265614 
-41.629921 -49.949005 54.247276 
-41.678051 -50.010605 54.263279 
-41.772282 -49.994789 54.237419 
-41.809097 -50.090324 54.211845 
-41.720406 -50.088276 54.228580 
-41.802750 -50.134235 54.156223 
-42.931271 -52.646389 53.261829 
-42.857868 -52.653633 53.220886 
-43.063213 -52.600452 53.192684 
-43.102596 -52.693150 53.188095 
-42.850502 -52.730869 53.241322 
-43.073765 -52.755981 53.151066 
-42.980125 -52.782211 53.186275 
-43.006676 -52.759937 53.242859 
-42.896870 -52.762070 53.161091 
-43.920372 -55.639519 51.977512 
-43.810616 -55.676117 51.920609 
-44.096676 -55.519905 51.950584 
-44.309635 -55.549629 51.873714 
-44.157345 -55.709164 51.920815 
-43.808449 -55.812664 51.906620 
-43.837292 -55.861713 51.835484 
-43.885742 -55.865181 51.904408 
-44.334736 -55.704765 51.787773 
-44.152443 -55.825645 51.835934 
-43.991879 -55.883572 51.793171 
-33.040230 -37.847019 60.101494 
-32.912182 -37.965580 59.949066 
-33.200180 -37.662594 60.027458 
-33.428383 -37.656754 59.987358 
-33.604794 -37.889328 59.993946 
-32.843159 -38.250187 59.989204 
-33.666874 -38.104015 59.884369 
-33.004471 -38.428391 59.725128 
-32.888691 -38.506416 59.936943 
-33.464314 -38.494564 59.768406 
-33.594135 -38.355808 59.911564 
-33.094269 -38.636253 59.817078 
-33.298027 -38.657139 59.831882 
-34.620926 -40.334290 58.869484 
-34.565605 -40.330120 59.075344 
-34.478115 -40.462521 58.981628 
-34.787205 -40.219357 59.037319 
-34.978012 -40.165253 58.897270 
-35.088795 -40.284176 58.922714 
-34.621330 -40.509384 58.811604 
-34.425861 -40.677879 59.011433 
-35.128029 -40.494064 58.907761 
-34.609032 -40.800117 58.854710 
-34.767059 -40.912567 58.790997 
-34.647137 -41.034813 58.912399 
-34.902760 -40.899277 58.798691 
-35.046318 -40.750523 58.870804 
-34.809509 -41.047260 58.850677 
-36.344601 -42.852043 57.804943 
-36.320724 -42.868027 57.945301 
-36.251194 -42.981281 57.874950 
-36.477928 -42.784130 57.902496 
-36.620049 -42.868450 57.931530 
-36.349854 -42.990074 57.777370 
-36.213505 -43.234463 57.909386 
-36.792774 -43.102837 57.937031 
-36.454269 -43.192276 57.790615 
-36.648521 -43.237820 57.833260 
-37.904034 -45.595856 56.910168 
-37.860722 -45.549812 56.924480 
-37.841156 -45.612106 56.920170 
-37.949009 -45.597866 56.970989 
-37.924622 -45.700108 56.958141 
-40.562656 -47.769245 55.304199 
-41.733494 -50.065998 54.269344 
-42.885254 -52.710163 53.286636 
-42.975937 -52.706200 53.274391 
-42.916714 -52.761040 53.262436 
-43.139236 -55.995815 52.342606 
-43.042702 -55.942818 52.454792 
-43.003429 -56.064560 52.342838 
-43.885429 -55.776924 51.962185 
-43.223385 -55.957375 52.402168 
-44.004955 -55.710323 51.978436 
-43.133766 -56.103447 52.303017 
-43.029686 -56.219578 52.310841 
-43.257996 -56.062099 52.341431 
-44.005928 -55.824841 51.923805 
-43.212440 -56.271656 52.329521 
-33.073235 -38.000580 60.240166 
-32.905949 -38.172329 60.157856 
-33.260334 -37.814030 60.184944 
-33.456779 -37.828281 60.156796 
-33.376698 -37.911346 60.248898 
-32.830975 -38.446255 60.110493 
-33.478992 -38.060181 60.208122 
-33.615215 -38.191040 60.060669 
-32.844749 -38.687843 60.144997 
-33.403412 -38.612328 59.988758 
-33.536972 -38.426762 60.083076 
-32.955227 -38.764389 60.044449 
-33.163391 -38.765228 59.996204 
-34.415459 -40.460735 59.353500 
-34.359859 -40.546028 59.189980 
-34.657269 -40.340557 59.251381 
-34.908806 -40.291973 59.108742 
-35.035969 -40.475586 59.116138 
-34.293732 -40.784763 59.259857 
-35.094101 -40.706863 59.069763 
-34.448330 -40.932514 59.062260 
-34.558170 -41.109886 59.108398 
-34.934238 -41.013737 58.926525 
-35.045597 -40.926220 59.055367 
-34.761562 -41.125156 58.991001 
-36.226494 -43.005932 58.195087 
-36.121304 -43.098412 58.050877 
-36.476513 -42.886059 58.068542 
-36.735622 -43.026283 58.127529 
-35.941837 -43.400772 58.147461 
-36.945728 -43.122608 58.071941 
-36.980881 -43.177280 58.033791 
-37.025162 -43.202953 58.099308 
-36.351620 -43.432373 57.884403 
-36.160538 -43.551777 58.034721 
-36.551376 -43.437031 57.872787 
-36.752914 -43.386372 57.950329 
-36.946629 -43.300213 58.065022 
-36.406281 -43.625389 57.990959 
-36.618851 -43.582031 57.996983 
-37.723660 -45.475544 57.046795 
-37.655834 -45.497463 57.172031 
-37.623516 -45.532894 57.084946 
-37.840370 -45.505905 56.996780 
-37.795029 -45.478569 57.099262 
-37.946461 -45.574570 57.102531 
-37.740738 -45.560898 56.980885 
-37.583111 -45.694241 57.092384 
-38.122654 -45.796783 57.098648 
-37.756989 -45.744152 56.993912 
-37.894062 -45.921944 57.041401 
-39.510101 -48.262253 56.083275 
-39.477337 -48.201748 56.138588 
-39.384380 -48.280857 56.118023 
-39.580059 -48.258499 56.097046 
-39.539600 -48.369564 56.103424 
-42.083862 -53.519840 53.766949 
-41.992352 -53.532982 53.824821 
-42.045330 -53.566681 53.769238 
-42.074730 -53.515823 53.830177 
-42.095196 -53.557674 53.783234 
-42.861324 -56.042564 52.440014 
-42.786549 -55.964737 52.624306 
-42.699993 -56.152092 52.521622 
-43.032940 -55.898132 52.635098 
-43.353485 -56.023426 52.438427 
-43.231991 -55.933891 52.535099 
-43.382175 -56.028282 52.574219 
-42.851521 -56.225796 52.382999 
-42.654308 -56.455242 52.511112 
-43.368130 -56.160587 52.383221 
-43.453911 -56.166218 52.492088 
-42.966145 -56.473976 52.361851 
-43.223442 -56.554314 52.389721 
-43.395691 -56.348225 52.422386 
-33.022160 -38.233658 60.292339 
-33.238277 -38.087070 60.294369 
-33.104172 -38.419235 60.333961 
-32.898769 -38.554665 60.269646 
-33.326973 -38.338646 60.290562 
-33.500862 -38.319946 60.193062 
-33.345875 -38.571301 60.203934 
-32.845169 -38.809624 60.262127 
-33.212238 -38.765163 60.140057 
-32.877823 -38.856594 60.194969 
-33.005962 -38.875885 60.188168 
-34.326298 -40.598053 59.579887 
-34.252342 -40.651699 59.444298 
-34.522739 -40.481598 59.464081 
-34.782650 -40.498646 59.355988 
-34.971226 -40.695396 59.275936 
-34.201851 -40.847214 59.518044 
-35.043549 -40.863186 59.193390 
-34.351032 -41.001228 59.340412 
-34.528759 -41.121586 59.296230 
-34.881519 -41.071869 59.135990 
-35.002296 -40.976006 59.185478 
-34.688557 -41.154144 59.161148 
-36.149960 -43.147507 58.459743 
-35.933723 -43.245159 58.306473 
-36.450722 -43.037487 58.318249 
-36.704918 -43.202808 58.372299 
-35.746799 -43.426643 58.297852 
-35.714420 -43.430065 58.417850 
-35.656387 -43.523399 58.360420 
-36.943474 -43.171448 58.186424 
-37.013313 -43.267998 58.162342 
-35.747890 -43.545601 58.279472 
-35.933010 -43.679314 58.256741 
-36.764637 -43.536915 58.149178 
-36.932064 -43.380005 58.202091 
-36.229019 -43.769222 58.183601 
-36.504837 -43.733803 58.164268 
-37.561806 -45.595257 57.384975 
-37.501339 -45.613258 57.229038 
-37.802498 -45.547310 57.254547 
-38.063263 -45.711487 57.290886 
-37.421329 -45.799412 57.249462 
-38.291664 -45.818302 57.214371 
-38.334576 -45.869404 57.170643 
-38.380192 -45.901051 57.227371 
-37.581516 -46.025932 57.153915 
-37.841286 -46.146973 57.098213 
-37.713470 -46.280682 57.150955 
-38.068722 -46.074684 57.119560 
-38.305313 -45.987892 57.189785 
-37.912861 -46.292389 57.171898 
-39.285000 -48.170437 56.205402 
-39.183395 -48.129337 56.341175 
-39.114948 -48.164524 56.259129 
-39.426620 -48.160091 56.295155 
-39.174725 -48.284321 56.194439 
-39.031086 -48.252193 56.282692 
-39.048180 -48.469982 56.292080 
-39.650410 -48.309242 56.126286 
-39.604321 -48.228134 56.176933 
-39.693104 -48.313671 56.203613 
-39.311474 -48.493732 56.163570 
-39.532104 -48.582157 56.179947 
-39.668961 -48.430859 56.181717 
-40.761993 -50.925331 55.182934 
-40.736767 -50.898640 55.200958 
-40.702709 -50.959698 55.199139 
-40.755157 -50.933125 55.262146 
-40.757797 -51.002693 55.206158 
-41.900539 -53.641354 53.834156 
-41.753635 -53.589039 54.013840 
-41.674206 -53.781860 53.938393 
-41.967133 -53.505356 53.924400 
-42.030960 -53.519329 53.957165 
-41.857155 -53.770245 53.848835 
-41.746666 -53.888779 53.929722 
-42.016579 -53.672619 53.818680 
-42.079811 -53.609238 53.904591 
-41.910187 -53.847828 53.912720 
-42.035881 -53.761150 53.928936 
-42.641315 -55.932377 52.815102 
-42.477924 -56.159603 52.772247 
-42.848286 -55.882233 52.827751 
-43.204056 -55.982796 52.772137 
-43.450867 -56.181492 52.667381 
-42.379963 -56.574745 52.736309 
-43.486771 -56.341846 52.542706 
-42.802692 -56.718452 52.438171 
-42.602074 -56.798344 52.576855 
-43.024269 -56.761532 52.411465 
-43.213669 -56.755981 52.465523 
-43.392017 -56.571320 52.521255 
-42.841286 -56.913338 52.509502 
-43.061474 -56.895504 52.509216 
-33.003139 -38.705814 60.339775 
-33.179001 -38.583687 60.318592 
-32.946388 -38.883930 60.342640 
-32.885605 -38.840435 60.329163 
-33.089218 -38.796543 60.282928 
-32.947090 -38.930477 60.306797 
-32.883873 -38.922085 60.286854 
-34.266869 -40.712170 59.736118 
-34.189075 -40.744629 59.663315 
-34.493347 -40.670490 59.632469 
-34.766541 -40.721848 59.471645 
-34.609219 -40.851864 59.603893 
-34.156387 -40.882301 59.720020 
-34.853939 -40.926422 59.354977 
-34.608322 -40.991222 59.530674 
-34.232040 -40.966740 59.591980 
-34.405781 -41.034256 59.554111 
-34.674614 -41.088207 59.341469 
-36.123577 -43.262093 58.662441 
-35.901546 -43.361462 58.554554 
-36.370747 -43.205647 58.600681 
-36.535652 -43.386791 58.618038 
-35.721291 -43.518150 58.519127 
-35.647923 -43.553345 58.438499 
-36.920860 -43.291603 58.266331 
-36.747158 -43.463306 58.380428 
-35.714394 -43.636852 58.383453 
-35.888542 -43.781261 58.491524 
-36.578003 -43.728218 58.377617 
-36.083595 -43.860802 58.376530 
-36.329018 -43.889248 58.406090 
-37.425945 -45.725372 57.683270 
-37.325787 -45.755627 57.459148 
-37.759033 -45.673641 57.507210 
-38.001026 -45.871006 57.556812 
-37.290112 -45.975498 57.388126 
-37.160805 -45.925091 57.584118 
-37.165157 -46.114647 57.576797 
-38.276146 -45.879959 57.325207 
-38.363441 -45.980137 57.275738 
-37.357685 -46.225082 57.369030 
-37.549850 -46.317196 57.232220 
-37.491909 -46.422493 57.372803 
-38.146267 -46.192272 57.258747 
-38.317234 -46.066078 57.271046 
-37.704960 -46.419651 57.246819 
-37.898102 -46.400841 57.313213 
-39.037140 -48.174927 56.351604 
-39.065556 -48.220577 56.510986 
-38.961426 -48.316597 56.406876 
-39.273071 -48.155457 56.459309 
-39.463062 -48.237148 56.482510 
-38.916840 -48.526615 56.462406 
-39.625656 -48.261154 56.315746 
-39.712421 -48.406956 56.307137 
-39.169308 -48.693665 56.264805 
-38.999428 -48.769165 56.444622 
-39.361050 -48.745701 56.229374 
-39.515358 -48.758408 56.276978 
-39.654739 -48.606236 56.314434 
-39.208862 -48.890648 56.363205 
-39.391357 -48.884029 56.340172 
-40.644211 -50.887180 55.287285 
-40.520702 -50.857304 55.456745 
-40.496712 -50.892147 55.359016 
-40.670231 -50.886303 55.421356 
-40.541210 -51.018604 55.281399 
-40.400307 -50.978245 55.393192 
-40.362850 -51.161194 55.401840 
-40.759773 -50.991524 55.406532 
-40.508881 -51.227627 55.296967 
-40.390915 -51.388084 55.412354 
-40.671822 -51.147793 55.241241 
-40.774265 -51.121399 55.314877 
-40.584419 -51.381504 55.321518 
-40.719131 -51.315838 55.315678 
-41.522533 -53.744083 54.069347 
-41.486267 -53.664829 54.244770 
-41.381527 -53.842739 54.205624 
-41.639702 -53.498123 54.327919 
-41.876770 -53.508911 54.112244 
-41.994667 -53.589394 54.116848 
-41.473785 -53.867466 54.058186 
-41.566498 -53.954632 54.044086 
-42.041180 -53.752781 54.084507 
-41.738472 -54.011562 54.084496 
-41.951164 -53.911228 54.072926 
-42.531624 -55.888546 53.053192 
-42.415615 -55.805058 53.297611 
-42.282257 -55.903740 53.228397 
-42.885334 -55.905140 53.060101 
-42.628387 -55.811146 53.287479 
-42.842308 -55.957317 53.301926 
-42.233524 -56.083237 53.070442 
-42.135571 -56.074425 53.269409 
-42.073326 -56.264641 53.139233 
-43.163551 -56.185413 53.029434 
-43.360973 -56.137936 52.826550 
-42.183525 -56.375076 52.951176 
-42.067032 -56.512619 53.115765 
-43.408844 -56.290283 52.809265 
-43.467392 -56.433216 52.666191 
-42.201515 -56.653118 52.933472 
-42.423019 -56.882370 52.809319 
-43.230156 -56.787941 52.631180 
-43.402565 -56.611370 52.653397 
-42.672714 -56.985577 52.647629 
-42.917877 -56.988350 52.673828 
-32.892937 -38.940086 60.337860 
-34.287827 -40.795498 59.810055 
-34.175762 -40.816780 59.807175 
-34.419037 -40.831463 59.752838 
-34.291027 -40.898014 59.827091 
-34.157425 -40.902504 59.829983 
-34.435555 -40.943497 59.702576 
-34.293877 -40.971672 59.764584 
-34.213829 -40.965763 59.744450 
-36.230824 -43.327221 58.785393 
-36.048557 -43.449165 58.746269 
-36.369205 -43.339474 58.769238 
-36.297558 -43.400043 58.842365 
-35.720028 -43.634338 58.498703 
-35.874416 -43.624485 58.632366 
-36.374146 -43.534660 58.795036 
-36.516117 -43.675114 58.618721 
-36.006451 -43.865925 58.690918 
-36.442425 -43.866112 58.554699 
-36.298210 -43.967209 58.635777 
-36.395405 -43.873211 58.692158 
-36.119286 -43.957302 58.587006 
-37.200302 -45.830505 57.696857 
-37.227299 -45.862183 57.908970 
-37.094086 -45.995190 57.788223 
-37.413223 -45.791279 57.895416 
-37.647583 -45.806072 57.817917 
-37.821159 -45.965042 57.843483 
-37.113899 -46.170914 57.754917 
-38.208611 -46.062351 57.395859 
-37.969997 -46.113842 57.643524 
-37.291317 -46.319122 57.592842 
-37.499535 -46.461376 57.518970 
-38.005375 -46.285702 57.452721 
-37.817986 -46.440384 57.466293 
-37.773819 -46.318684 57.671387 
-37.676655 -46.490963 57.393864 
-39.030838 -48.380405 56.743801 
-38.917667 -48.433414 56.601616 
-39.242065 -48.267498 56.636833 
-39.444157 -48.434006 56.672482 
-38.876171 -48.694866 56.634708 
-39.640167 -48.374695 56.464798 
-39.707073 -48.508163 56.424019 
-38.918278 -48.957897 56.682285 
-39.505058 -48.830246 56.463310 
-39.641819 -48.645641 56.487553 
-39.081440 -49.029091 56.571411 
-39.291245 -49.006172 56.513527 
-40.396542 -50.905693 55.473679 
-40.353001 -50.947029 55.660587 
-40.272655 -51.053268 55.550480 
-40.548111 -50.893879 55.591030 
-40.671822 -50.988422 55.586960 
-40.159809 -51.325684 55.627781 
-40.767296 -51.152134 55.513077 
-40.300556 -51.529617 55.551620 
-40.767544 -51.339016 55.438953 
-40.488239 -51.555363 55.454041 
-40.665539 -51.492599 55.418373 
-41.629246 -53.400906 54.483219 
-41.578484 -53.369480 54.549587 
-41.556705 -53.419132 54.507164 
-41.621975 -53.427067 54.540302 
-41.460041 -53.621891 54.505638 
-41.346668 -53.799164 54.388210 
-41.777348 -53.536133 54.389648 
-41.955631 -53.738384 54.313782 
-41.407063 -53.968464 54.172104 
-41.317375 -53.999004 54.399040 
-41.972507 -53.918953 54.271435 
-41.492325 -54.090725 54.265511 
-41.654171 -54.127491 54.262840 
-41.812405 -54.078239 54.295326 
-42.462692 -55.805786 53.430885 
-42.278458 -55.895992 53.382687 
-42.635712 -55.843472 53.435165 
-42.520332 -55.896713 53.511894 
-42.194828 -56.147041 53.441120 
-42.042873 -56.333176 53.285618 
-42.693569 -56.023048 53.482079 
-42.915829 -56.242271 53.354301 
-42.042095 -56.590637 53.279720 
-43.304390 -56.550308 52.833309 
-43.036716 -56.582001 53.161156 
-42.215237 -56.790291 53.127850 
